VERSION 0.7
FIELDS x y z
SIZE 4 4 4
TYPE F F F
COUNT 1 1 1
WIDTH 1709
HEIGHT 1
VIEWPOINT 0.0 0.0 0.0 1.0 0.0 0.0 0.0
POINTS 1709
DATA ascii
-116.6058 -21.0155 13.7510 
-116.6143 -21.0657 13.8223 
-116.6099 -21.0349 13.7854 
-116.6153 -21.0391 13.8031 
-116.5779 -21.0515 13.7548 
-116.5724 -21.0137 13.7029 
-116.5863 -21.0258 13.7415 
-116.5951 -21.0581 13.7949 
-116.5973 -21.0362 13.7764 
-116.2853 -21.6440 13.8271 
-116.4958 -21.2534 13.4272 
-116.5093 -21.2446 13.4634 
-116.5152 -21.2242 13.5038 
-116.3673 -21.0513 13.2165 
-116.3677 -21.0268 13.2072 
-116.3736 -21.0597 13.3323 
-116.3717 -21.0403 13.3324 
-116.4048 -21.0993 13.4685 
-116.4110 -21.0972 13.4921 
-116.3857 -21.0597 13.3836 
-116.3924 -21.0709 13.4145 
-116.3800 -21.0471 13.3576 
-116.4062 -21.0735 13.4627 
-116.4161 -21.0817 13.4992 
-116.3963 -21.0814 13.4450 
-116.3605 -21.0535 13.3014 
-116.3478 -21.0485 13.2801 
-116.3436 -21.0454 13.3335 
-116.4559 -21.1718 13.7317 
-116.4921 -21.1921 13.7780 
-116.5103 -21.1993 13.8114 
-116.4804 -21.2032 13.7655 
-116.4437 -21.1068 13.5888 
-116.4602 -21.1426 13.6652 
-116.4469 -21.1218 13.6148 
-116.4585 -21.1263 13.6442 
-116.4281 -21.1365 13.5923 
-116.4259 -21.1060 13.5397 
-116.4372 -21.1073 13.5672 
-116.4393 -21.1546 13.6437 
-116.4243 -21.0884 13.5282 
-116.3742 -21.0136 13.6285 
-116.3747 -21.0293 13.6536 
-116.4642 -21.1518 13.6925 
-116.4243 -21.0917 13.7828 
-116.3908 -21.1057 13.7817 
-116.4089 -21.0683 13.7417 
-116.4024 -21.0422 13.7055 
-116.3888 -21.0568 13.7048 
-116.3948 -21.0780 13.7356 
-116.3902 -21.0356 13.6847 
-116.3160 -21.1750 13.7500 
-116.3462 -21.0096 13.5822 
-116.3561 -21.0134 13.6029 
-116.3584 -21.0358 13.6384 
-116.2698 -21.1409 13.6556 
-116.2684 -21.1203 13.6241 
-116.2759 -21.1232 13.6436 
-116.2901 -21.1554 13.6992 
-116.2979 -21.1676 13.7241 
-116.2750 -21.1606 13.6883 
-116.8284 -21.6128 13.8917 
-116.8401 -21.6026 13.8817 
-116.8084 -21.5131 13.9844 
-116.7770 -21.5143 13.9930 
-116.6940 -21.6350 13.9600 
-116.7659 -21.5019 14.0186 
-116.6855 -21.4976 14.0210 
-116.7744 -21.3501 14.0402 
-116.7887 -21.3589 14.1159 
-116.7513 -21.3548 14.0276 
-116.7381 -21.3492 14.0422 
-116.5529 -21.4892 14.0242 
-116.5732 -21.4172 13.9888 
-116.6294 -21.4795 14.0362 
-116.6211 -21.4231 14.0567 
-116.5769 -21.4260 14.0562 
-116.5224 -21.4675 14.0249 
-116.7838 -21.2607 13.8986 
-116.8066 -21.2597 13.9547 
-116.8123 -21.2707 13.9795 
-116.7971 -21.2621 13.9356 
-116.7950 -21.2732 13.9690 
-116.7752 -21.2353 13.8570 
-116.7915 -21.2424 13.8998 
-116.8084 -21.2422 13.9419 
-116.6981 -21.1920 13.9524 
-116.8201 -21.3140 14.0688 
-116.8256 -21.2667 14.0081 
-116.7897 -21.3188 14.0731 
-116.7971 -21.2987 14.0991 
-116.7231 -21.2429 14.0478 
-116.7012 -21.1866 14.0072 
-116.8228 -21.0586 13.8995 
-116.8132 -21.0306 13.8570 
-116.8249 -21.0397 13.8792 
-116.6959 -21.1649 13.9880 
-116.6118 -21.2714 13.9782 
-116.6735 -21.1865 13.9906 
-116.5764 -21.2570 13.9380 
-116.5933 -21.2749 13.9765 
-116.5778 -21.2322 13.9144 
-116.5328 -21.2248 13.8606 
-116.5552 -21.2391 13.8932 
-116.5421 -21.2064 13.8577 
-116.5756 -21.2455 13.9280 
-116.6713 -21.3210 14.0553 
-116.6267 -21.3027 14.0134 
-116.6327 -21.2799 14.0099 
-116.6524 -21.1058 13.9030 
-116.6293 -21.0954 13.8630 
-116.6319 -21.0975 13.8796 
-116.6570 -21.1450 13.9411 
-116.6255 -21.0770 13.8502 
-116.7791 -21.0658 14.3098 
-116.8141 -21.1440 14.3712 
-116.7993 -21.1135 14.3197 
-116.7391 -21.0575 14.3720 
-116.7425 -21.0279 14.3346 
-116.7087 -21.0109 14.3996 
-116.4912 -21.4507 13.9613 
-116.4978 -21.4357 13.9783 
-116.4784 -21.4338 13.9777 
-116.4290 -21.4381 13.9689 
-116.4596 -21.4734 14.0316 
-116.4702 -21.3990 14.0116 
-116.2826 -21.6312 13.8470 
-116.2956 -21.4469 13.9625 
-116.5104 -21.2544 13.9728 
-116.4921 -21.2162 13.9390 
-116.4745 -21.2200 13.9391 
-116.4624 -21.1981 13.9500 
-116.4516 -21.1792 13.9662 
-116.4272 -21.3139 13.9554 
-116.3622 -21.1928 13.9123 
-116.3660 -21.1803 13.9362 
-116.4566 -21.1458 13.8626 
-116.4696 -21.1649 13.8860 
-116.4466 -21.1553 13.9786 
-116.4346 -21.1651 13.9488 
-116.4368 -21.1504 13.9863 
-116.4127 -21.0996 14.0147 
-116.3890 -21.1012 14.0748 
-116.4011 -21.0855 14.0261 
-116.3962 -21.0724 14.0331 
-116.3913 -21.0700 14.0537 
-116.3727 -21.0330 14.0362 
-116.3691 -21.0278 14.0636 
-116.3897 -21.0647 14.0930 
-116.3722 -21.0308 14.1074 
-116.2909 -21.3105 13.8615 
-116.3370 -21.1805 13.9429 
-116.2784 -21.2900 13.8464 
-116.3503 -21.1483 13.9497 
-116.3473 -21.1466 13.9673 
-116.3337 -21.1160 13.9759 
-116.3311 -21.1066 13.9968 
-116.3261 -21.1097 14.0684 
-116.3236 -21.0730 14.0207 
-116.3081 -21.0580 14.0244 
-116.2984 -21.0422 14.0263 
-116.3031 -21.0244 14.0533 
-116.3603 -21.0117 14.1224 
-116.3180 -21.0634 14.0883 
-116.3067 -21.0391 14.1091 
-116.2969 -21.0198 14.1247 
-117.4507 -22.2241 14.7391 
-117.4464 -22.2312 14.7686 
-117.3466 -22.1590 14.7856 
-117.2472 -22.0966 14.7431 
-117.2939 -22.0393 14.7092 
-117.4018 -22.2685 14.8305 
-117.4125 -22.2825 14.9254 
-117.3915 -22.2786 14.8592 
-117.3514 -22.2242 14.8413 
-117.3926 -22.2851 14.8805 
-117.3439 -22.2138 14.8780 
-117.3363 -22.2400 14.9223 
-117.3302 -22.1903 14.8646 
-117.3492 -22.1978 14.9335 
-117.3287 -22.2607 14.9882 
-117.3284 -22.2440 14.9622 
-117.3224 -22.2842 15.0464 
-117.2442 -22.1877 14.9516 
-117.2563 -22.1325 14.9253 
-117.2070 -22.1694 14.9552 
-117.2365 -22.1548 14.9181 
-117.3094 -22.2547 14.9910 
-117.3011 -22.2705 15.0124 
-117.3066 -22.2465 14.9805 
-117.2540 -22.2186 15.0054 
-117.2984 -22.2844 15.0580 
-117.3016 -22.2821 15.0825 
-117.2461 -22.1997 14.9706 
-117.2068 -22.2712 15.1022 
-117.2186 -22.2321 15.0655 
-117.2111 -22.2446 15.0776 
-117.1791 -22.2557 15.0742 
-117.1753 -22.2690 15.1055 
-117.1962 -22.2292 15.0599 
-117.1876 -22.2391 15.0858 
-117.2301 -22.1988 14.9787 
-117.2330 -22.2084 15.0091 
-117.2668 -22.1246 14.9124 
-116.8669 -22.1292 14.5105 
-116.8689 -22.1748 14.5964 
-116.8682 -22.1185 14.4925 
-116.8693 -22.2776 14.8948 
-116.8550 -22.2888 14.9226 
-117.1875 -22.2801 15.1297 
-116.6430 -22.2282 14.5039 
-116.6345 -22.2239 14.5218 
-116.6647 -22.0837 14.5248 
-116.6228 -21.9759 14.6629 
-116.7828 -22.2285 14.8243 
-116.7839 -22.2365 14.8438 
-116.7652 -22.2553 14.8818 
-116.7573 -22.2508 14.8683 
-116.7570 -22.2210 14.8067 
-116.7564 -22.2530 14.8885 
-116.6501 -22.2539 14.8647 
-116.6451 -22.2454 14.8414 
-116.6366 -22.2542 14.8609 
-116.6224 -22.2444 14.8539 
-116.6451 -22.2661 14.8867 
-116.6232 -22.2716 14.8917 
-116.6236 -21.9650 14.6442 
-116.4538 -22.2171 14.5405 
-116.4524 -22.2258 14.5726 
-116.4565 -22.1950 14.4926 
-116.4625 -22.2050 14.5200 
-116.4672 -22.2867 14.6903 
-116.3621 -22.2655 14.7932 
-116.3525 -22.2703 14.7629 
-116.3486 -21.4541 15.6435 
-117.4151 -20.8496 13.7115 
-117.4148 -20.8494 13.7268 
-117.4557 -20.8687 13.7642 
-117.4190 -20.8402 13.6650 
-117.4156 -20.8388 13.6784 
-117.4123 -20.8484 13.7409 
-117.1701 -20.7041 13.8271 
-117.4530 -20.6441 13.7708 
-117.4169 -20.6166 13.8320 
-117.4523 -20.5833 13.7314 
-117.4083 -20.5784 13.8298 
-117.4142 -20.5370 13.8154 
-117.3983 -20.5932 13.8058 
-117.3931 -20.5492 13.8193 
-117.4356 -20.5103 13.5911 
-117.4453 -20.5192 13.6106 
-117.4375 -20.5254 13.6259 
-117.4177 -20.4184 13.6350 
-117.4279 -20.4303 13.6601 
-117.4359 -20.3778 13.6120 
-117.4234 -20.4023 13.6435 
-117.3824 -20.3756 13.5940 
-117.3875 -20.4177 13.6551 
-117.3854 -20.3849 13.6018 
-117.3845 -20.4018 13.6386 
-117.4251 -20.4902 13.7001 
-117.4202 -20.4958 13.7176 
-117.4271 -20.4667 13.6976 
-117.4202 -20.5115 13.7891 
-117.4217 -20.4422 13.6821 
-117.3901 -20.4962 13.7205 
-117.3877 -20.4583 13.7003 
-117.3899 -20.4353 13.6865 
-117.1667 -20.6192 13.7553 
-117.1687 -20.6632 13.7923 
-117.1662 -20.6810 13.8121 
-117.1643 -20.6336 13.7786 
-117.1621 -20.5992 13.7333 
-117.1036 -20.8540 13.8173 
-117.0945 -20.6966 13.5944 
-117.1107 -20.7427 13.6686 
-117.1072 -20.7259 13.6182 
-117.1008 -20.7194 13.6499 
-117.1092 -20.7843 13.7265 
-117.1218 -20.8218 13.7812 
-117.1268 -20.8326 13.8022 
-117.1248 -20.8089 13.7679 
-117.1192 -20.8167 13.7878 
-117.1204 -20.8346 13.8139 
-117.1086 -20.7514 13.6878 
-116.8941 -20.8844 13.7934 
-116.8510 -20.9276 13.8221 
-117.1318 -20.5888 13.3419 
-117.0982 -20.6133 13.4726 
-117.0962 -20.6228 13.5001 
-117.0950 -20.5754 13.4320 
-117.1002 -20.5327 13.3673 
-117.0901 -20.5863 13.4571 
-117.0911 -20.6014 13.4845 
-117.0781 -20.6044 13.4481 
-117.0846 -20.4583 13.2573 
-117.0940 -20.4910 13.3056 
-117.0907 -20.5092 13.3346 
-117.0893 -20.4786 13.2913 
-117.0831 -20.4380 13.2255 
-117.0842 -20.4471 13.2406 
-117.0808 -20.4982 13.3159 
-117.0800 -20.5086 13.3398 
-117.0846 -20.5261 13.3608 
-117.0993 -20.6564 13.5331 
-117.0971 -20.6696 13.5739 
-117.0914 -20.6398 13.5397 
-117.1532 -20.6116 13.7465 
-117.1563 -20.6654 13.7798 
-117.1559 -20.6354 13.7729 
-117.1581 -20.5711 13.7043 
-117.1531 -20.5867 13.7330 
-117.1456 -20.5615 13.7104 
-117.1424 -20.5091 13.6595 
-117.1377 -20.4621 13.6197 
-117.1423 -20.4835 13.6404 
-117.1281 -20.4173 13.5842 
-117.1278 -20.3779 13.5448 
-117.1054 -20.4039 13.5588 
-117.1345 -20.4435 13.6038 
-117.4427 -20.8898 13.9135 
-117.4026 -20.8701 13.8487 
-117.4799 -20.8656 14.0315 
-117.4275 -20.9031 14.0351 
-117.4044 -20.8681 14.0330 
-117.4606 -20.8909 14.1274 
-117.4478 -20.8649 14.1040 
-117.3957 -20.9860 14.0906 
-117.3900 -20.9783 14.1531 
-117.3895 -20.8497 14.0417 
-117.4523 -20.7789 13.9300 
-117.4224 -20.7875 13.9514 
-117.4075 -20.7156 13.9059 
-117.4689 -20.7472 13.9761 
-117.4482 -20.7037 13.9633 
-117.4247 -20.7100 13.9779 
-117.3878 -20.8004 13.9955 
-117.3985 -20.7041 13.8836 
-117.3775 -20.7635 13.9514 
-117.3978 -20.7181 13.9298 
-117.4403 -20.8388 14.0747 
-117.4375 -20.7693 14.0139 
-117.4314 -20.7843 14.0461 
-117.4303 -20.7461 14.0104 
-117.3905 -20.8272 14.0179 
-117.3910 -20.8385 14.0372 
-117.2046 -20.8542 13.9391 
-117.2052 -20.8561 13.9647 
-117.2458 -20.9996 14.0921 
-117.2307 -20.9405 14.0222 
-117.1664 -20.9871 14.0190 
-117.2262 -20.9258 14.0343 
-117.1917 -20.8192 13.9122 
-117.1909 -20.7833 13.8986 
-117.2021 -20.8066 13.9204 
-117.1969 -20.8242 13.9277 
-117.1967 -20.8044 13.9322 
-117.1811 -20.7464 13.8581 
-117.1869 -20.7587 13.8863 
-117.1771 -20.7149 13.8460 
-117.4167 -20.9546 14.1606 
-117.3905 -20.9813 14.1617 
-117.1979 -21.0003 14.2977 
-117.1708 -20.9319 14.2625 
-117.1662 -20.9214 14.2613 
-117.4303 -20.6604 13.9109 
-117.4205 -20.6190 13.8688 
-117.4171 -20.6329 13.8994 
-117.4270 -20.6675 13.9382 
-117.4220 -20.6873 13.9674 
-117.4166 -20.6461 13.9289 
-117.4098 -20.5918 13.8583 
-117.4067 -20.5637 13.8509 
-117.1285 -20.9743 13.9925 
-117.1268 -20.9626 13.9843 
-117.0977 -20.9004 13.8713 
-117.1194 -20.9223 13.9013 
-116.9360 -20.9981 13.9603 
-116.8731 -20.9562 13.9033 
-116.8992 -20.9914 13.9447 
-116.8931 -21.0073 13.9624 
-116.8483 -20.9156 13.8470 
-117.1441 -20.9789 14.3063 
-117.1589 -20.9644 14.3027 
-117.1483 -20.9118 14.2743 
-117.1280 -20.8999 14.2801 
-117.0932 -20.8782 14.2956 
-117.0585 -20.8561 14.3093 
-117.1139 -20.9327 14.3265 
-117.0952 -20.9061 14.3321 
-117.0523 -20.8907 14.3565 
-117.0569 -20.8827 14.3499 
-117.0276 -20.8752 14.3425 
-117.0291 -20.8407 14.3289 
-116.9945 -20.8459 14.3404 
-116.9691 -20.8216 14.3735 
-116.9467 -20.7872 14.3844 
-116.9008 -20.7500 14.4161 
-116.8739 -20.7295 14.4208 
-116.8654 -20.7144 14.4214 
-117.4474 -20.2588 13.4945 
-117.4492 -20.2454 13.4841 
-117.4339 -20.2592 13.4936 
-117.3766 -20.2970 13.5057 
-117.3727 -20.2167 13.3922 
-117.3726 -20.2332 13.4206 
-117.3592 -20.2100 13.4050 
-117.3702 -20.2660 13.4643 
-117.3759 -20.2807 13.4854 
-117.3813 -20.2489 13.4425 
-117.3575 -20.2520 13.4960 
-117.3281 -20.2332 13.4743 
-117.3757 -20.1480 13.3089 
-117.3655 -20.1559 13.3252 
-117.4238 -20.1935 13.4324 
-117.4671 -20.1279 13.3957 
-117.3576 -20.1828 13.3742 
-117.3562 -20.1991 13.3980 
-117.4428 -20.3403 13.5719 
-117.4451 -20.3026 13.5429 
-117.4433 -20.3204 13.5618 
-117.4317 -20.3458 13.5809 
-117.4204 -20.3100 13.5438 
-117.4340 -20.3201 13.5659 
-117.4377 -20.3636 13.6031 
-117.4481 -20.2815 13.5212 
-117.3826 -20.3381 13.5531 
-117.3827 -20.3513 13.5706 
-117.3750 -20.3165 13.5332 
-117.1256 -20.3400 13.5076 
-117.1238 -20.3213 13.4937 
-117.1175 -20.3340 13.5076 
-117.1205 -20.2909 13.4728 
-117.1230 -20.2209 13.4120 
-117.1198 -20.2095 13.4091 
-117.1223 -20.2672 13.4495 
-117.0868 -20.2883 13.4465 
-117.1196 -20.2041 13.4034 
-117.1253 -20.3529 13.5256 
-117.4717 -20.3048 14.3504 
-117.4570 -20.2993 14.3742 
-117.4324 -20.2958 14.3886 
-117.4251 -20.2963 14.4001 
-117.1716 -19.8964 14.4182 
-117.1711 -19.8953 14.4586 
-116.6826 -20.8567 13.3561 
-116.6859 -20.8633 13.3748 
-116.6985 -20.8853 13.4123 
-116.7272 -20.8946 13.4579 
-116.7294 -20.9128 13.5137 
-116.7132 -20.9129 13.4623 
-116.7119 -20.9208 13.5039 
-116.6871 -20.8376 13.3323 
-116.6988 -20.8488 13.3772 
-116.7318 -20.7831 13.4881 
-116.7070 -20.7344 13.3752 
-116.6738 -20.8518 13.2164 
-116.5298 -20.9418 13.4947 
-116.5283 -20.9067 13.4217 
-116.5288 -20.9107 13.4575 
-116.5333 -20.9188 13.5021 
-116.6642 -20.8156 13.2030 
-116.6690 -20.8039 13.2078 
-116.7650 -20.9452 13.6762 
-116.7231 -20.9308 13.5289 
-116.7396 -20.9389 13.5853 
-116.7189 -20.9419 13.5896 
-116.7439 -20.9725 13.6556 
-116.7399 -20.9434 13.6151 
-116.7484 -20.9577 13.6565 
-116.7226 -20.9183 13.5563 
-116.7400 -20.9203 13.5827 
-116.7116 -20.9254 13.5410 
-116.7196 -20.9283 13.5606 
-116.7471 -20.9220 13.6133 
-116.7722 -20.9785 13.7389 
-116.7671 -20.9617 13.6963 
-116.7845 -20.9665 13.7400 
-116.7810 -20.9956 13.7748 
-116.7965 -21.0071 13.8081 
-116.8123 -20.8667 13.7238 
-116.7861 -20.8707 13.7075 
-116.7801 -20.8614 13.7355 
-116.8266 -20.8949 13.8077 
-116.8121 -20.8761 13.7746 
-116.8289 -20.8850 13.8029 
-116.7520 -20.9766 13.7001 
-116.7566 -20.9633 13.6935 
-116.8053 -20.8033 13.6211 
-116.7826 -20.8114 13.6039 
-116.7807 -20.8449 13.6561 
-116.7735 -20.8044 13.6596 
-116.7468 -20.7821 13.5182 
-116.7569 -20.8121 13.6431 
-116.7340 -20.7552 13.5461 
-116.7371 -20.7622 13.5671 
-116.7164 -20.7547 13.5256 
-116.8017 -20.8296 13.6910 
-116.5617 -20.9532 13.5549 
-116.5345 -20.9431 13.5356 
-116.5436 -20.9596 13.5758 
-116.5700 -20.9810 13.6583 
-116.5618 -20.9627 13.6193 
-116.5707 -20.9661 13.6395 
-116.5488 -20.9761 13.6113 
-116.5539 -20.9876 13.6470 
-116.5556 -20.9581 13.6124 
-116.5603 -20.9624 13.6398 
-116.5458 -20.9213 13.5315 
-116.5781 -20.9956 13.6906 
-116.5880 -21.0086 13.7254 
-116.6841 -20.6641 13.3032 
-116.6653 -20.6171 13.2040 
-116.6756 -20.6602 13.2767 
-116.6711 -20.6603 13.3293 
-116.6733 -20.6829 13.3608 
-116.5075 -20.8546 13.2094 
-116.5141 -20.8798 13.2709 
-116.5153 -20.9344 13.4872 
-116.5122 -20.9027 13.3772 
-116.5117 -20.9035 13.4086 
-116.5205 -20.8876 13.4257 
-116.5132 -20.9091 13.4432 
-116.4908 -20.8302 13.2635 
-116.4892 -20.8404 13.2825 
-116.3042 -20.8726 13.2249 
-116.2987 -20.8784 13.2600 
-116.3009 -20.8981 13.3017 
-116.3090 -20.9040 13.3343 
-116.2994 -20.8792 13.2916 
-116.3031 -20.8874 13.3172 
-116.3265 -20.9439 13.4337 
-116.3157 -20.9318 13.3832 
-116.3149 -20.9393 13.4137 
-116.3376 -20.9732 13.5058 
-116.3276 -20.9525 13.4619 
-116.3429 -20.9569 13.4932 
-116.3206 -20.9503 13.4418 
-116.3318 -20.9236 13.4137 
-116.3115 -20.9161 13.3702 
-116.3185 -20.9234 13.4055 
-116.3657 -20.9907 13.5777 
-116.3754 -21.0033 13.6101 
-116.3437 -20.9841 13.5378 
-116.3539 -20.9981 13.5715 
-116.3565 -20.9640 13.5357 
-116.7280 -21.0010 14.3303 
-116.7025 -20.9884 14.3382 
-116.7012 -20.9895 14.3945 
-116.6921 -20.9921 14.4134 
-116.8399 -20.7197 14.4586 
-116.6650 -20.9444 14.3531 
-116.6531 -20.9345 14.3647 
-116.6788 -20.9729 14.4116 
-116.6648 -20.9479 14.4134 
-116.6330 -20.9293 14.4264 
-116.6496 -20.9184 14.3649 
-116.6302 -20.8986 14.3761 
-116.6095 -20.8744 14.3855 
-116.6259 -20.9114 14.4225 
-116.5929 -20.8559 14.3861 
-116.5903 -20.8898 14.4283 
-116.5864 -20.8580 14.3974 
-116.5741 -20.8415 14.4034 
-116.5547 -20.8207 14.4067 
-116.5410 -20.8000 14.4155 
-116.6813 -20.5677 14.1430 
-116.6526 -20.6206 14.1000 
-116.6766 -20.5745 14.1034 
-116.6622 -20.5765 14.1287 
-116.8399 -20.6886 14.4299 
-116.7370 -20.6194 14.4692 
-116.6428 -20.6125 14.2757 
-116.6603 -20.5818 14.1759 
-116.6519 -20.5874 14.2207 
-116.6516 -20.5879 14.2507 
-116.6370 -20.6000 14.2642 
-116.6313 -20.6005 14.2962 
-116.6352 -20.6159 14.3495 
-116.6205 -20.6182 14.4300 
-116.6278 -20.6018 14.3297 
-116.5916 -20.6111 14.4007 
-116.2951 -20.9981 14.0697 
-116.3502 -20.9878 14.0878 
-116.3315 -20.9561 14.1081 
-116.3254 -20.9356 14.1206 
-116.2875 -20.9814 14.0872 
-116.2828 -20.9543 14.1032 
-116.3162 -20.9429 14.1217 
-116.3034 -20.9160 14.1179 
-116.2786 -20.9821 14.0801 
-116.2736 -20.9512 14.1005 
-116.2753 -20.9234 14.1128 
-116.2692 -20.9099 14.1369 
-116.2630 -20.8860 14.1521 
-116.5193 -20.7789 14.4242 
-116.5114 -20.7902 14.4507 
-116.4677 -20.7290 14.4598 
-116.4777 -20.7286 14.4324 
-116.4573 -20.7053 14.4434 
-116.2730 -20.8545 14.1754 
-116.2660 -20.8370 14.1828 
-116.4166 -20.6552 14.4606 
-116.4098 -20.6382 14.4572 
-116.3895 -20.6246 14.4669 
-116.3779 -20.5953 14.4668 
-116.3546 -20.5704 14.4745 
-116.3448 -20.5569 14.4693 
-116.2712 -19.8578 14.2523 
-116.2737 -19.8321 14.2624 
-116.2636 -19.8202 14.2776 
-116.2661 -19.8079 14.2813 
-117.3816 -20.6333 14.6634 
-117.0341 -20.4146 14.7825 
-116.8637 -20.6505 14.8724 
-116.8544 -20.5962 14.8151 
-116.8430 -20.5911 14.8450 
-116.8821 -20.4604 14.8979 
-116.8560 -20.4431 14.8660 
-116.8500 -20.4234 14.9064 
-116.8474 -20.4106 14.9281 
-116.8430 -20.4004 14.9399 
-117.2355 -20.8481 15.7540 
-117.1864 -20.7966 15.6799 
-117.3662 -20.2927 14.5364 
-117.3353 -20.2618 14.5037 
-117.3215 -20.2592 14.5236 
-117.3085 -20.2512 14.5390 
-117.2960 -20.2435 14.5421 
-117.2931 -20.2447 14.5565 
-117.2556 -20.2352 14.5820 
-117.2437 -20.2336 14.6147 
-117.2316 -20.2206 14.6176 
-117.3022 -20.1524 14.9254 
-117.2578 -20.1135 14.8591 
-117.2341 -20.0604 14.8653 
-117.2351 -20.0705 14.8892 
-117.1742 -20.0571 14.9365 
-117.3019 -20.1609 15.0348 
-117.2485 -20.1333 15.0328 
-117.2951 -20.1653 15.0772 
-117.2570 -20.1412 15.1071 
-117.2416 -20.1141 15.0772 
-117.2227 -20.1080 14.9616 
-117.1794 -20.0706 14.9892 
-117.1778 -20.0739 15.0111 
-117.2210 -20.1021 15.0528 
-117.2328 -20.0979 15.0782 
-117.2037 -20.0780 15.0513 
-117.1728 -19.8982 14.5005 
-117.1734 -19.8976 14.5380 
-117.1764 -19.8988 14.5786 
-117.1750 -19.8970 14.6112 
-117.1779 -19.9047 14.6553 
-117.1740 -19.8985 14.6976 
-117.1767 -19.8970 14.7318 
-117.1661 -19.9124 14.7810 
-117.1758 -19.8576 14.7556 
-117.1678 -19.8785 14.7663 
-117.1657 -20.0317 14.8991 
-117.1718 -20.0424 14.9256 
-117.1668 -19.9504 14.8026 
-117.1770 -19.9000 14.8166 
-117.1760 -19.9005 14.8523 
-117.1752 -19.9036 14.8944 
-117.1795 -19.9051 14.9382 
-117.1844 -19.9041 14.9758 
-117.1848 -19.9074 15.0170 
-117.1821 -19.9077 15.0594 
-117.1816 -19.9051 15.0912 
-117.0949 -20.2549 14.7571 
-117.1033 -20.2292 14.7470 
-117.1471 -20.1877 14.7034 
-117.1338 -20.1803 14.7197 
-117.1130 -20.1727 14.7453 
-117.1055 -20.1788 14.7627 
-117.1039 -20.1635 14.7554 
-117.0863 -20.1583 14.7727 
-117.1605 -20.0639 14.7864 
-117.0760 -20.1512 14.7811 
-117.1200 -20.3406 14.9061 
-117.0903 -20.2963 14.9813 
-117.0876 -20.2979 15.0179 
-117.0902 -20.2866 14.9868 
-117.0964 -20.2826 15.0073 
-117.0861 -20.2820 15.0395 
-117.0624 -20.2724 15.0673 
-117.0490 -20.2698 15.0805 
-117.0330 -20.2648 15.0946 
-117.0267 -20.2464 15.1007 
-117.0874 -20.1381 14.8005 
-117.0591 -20.1482 14.8072 
-117.0315 -20.1375 14.8237 
-117.0073 -20.1309 14.8430 
-117.0472 -20.1182 14.8331 
-117.0285 -20.1166 14.8539 
-116.8628 -20.3116 14.8062 
-116.9934 -20.1213 14.8566 
-116.9991 -20.0867 14.8294 
-116.9531 -20.0982 14.8077 
-116.9353 -20.1048 14.8997 
-116.9409 -20.0801 14.9085 
-116.9258 -20.0697 14.9217 
-116.8964 -20.0547 14.9321 
-116.8443 -20.1721 15.0974 
-117.1574 -19.9391 14.7932 
-117.1567 -19.9148 14.7856 
-117.1572 -20.0159 14.8637 
-117.1532 -19.9765 14.8290 
-117.1516 -20.0051 14.8628 
-117.1574 -19.9525 14.8085 
-116.8660 -19.9027 14.8600 
-116.8494 -19.9018 14.8865 
-116.9463 -19.9110 15.0346 
-116.9426 -19.9023 15.0365 
-116.8824 -19.9083 14.9875 
-116.8460 -19.9072 15.0364 
-116.8479 -19.8897 15.0412 
-116.8641 -19.8852 14.8717 
-116.8525 -19.8704 14.8923 
-116.9232 -19.8745 15.0212 
-116.8974 -19.8733 15.0423 
-116.8985 -19.8581 15.0802 
-116.8713 -19.8351 15.0751 
-117.2487 -20.1494 15.1308 
-117.2621 -20.1419 15.1701 
-117.2533 -20.1430 15.2235 
-117.2569 -20.1396 15.2580 
-117.2586 -20.1264 15.1963 
-117.2661 -20.1220 15.2636 
-117.2404 -20.1453 15.2356 
-117.2353 -20.1484 15.2506 
-117.1909 -20.1488 15.2551 
-117.2220 -20.1021 15.1475 
-117.2128 -20.0942 15.1739 
-117.2160 -20.0810 15.1412 
-117.2137 -20.0775 15.1809 
-117.1921 -20.0780 15.1452 
-117.2086 -20.0808 15.2083 
-117.1917 -20.0587 15.2216 
-117.1870 -20.0638 15.2588 
-117.2533 -20.1206 15.2912 
-117.2096 -20.1319 15.2986 
-117.1933 -20.1532 15.2858 
-117.2184 -20.1189 15.3123 
-117.2108 -20.1152 15.3261 
-117.1668 -20.0586 15.2783 
-117.1738 -20.0750 15.3415 
-117.4590 -19.8373 15.2641 
-117.4303 -19.8186 15.2263 
-117.4525 -19.7908 15.2263 
-117.4644 -19.7960 15.2525 
-117.4309 -19.7986 15.2148 
-117.3957 -19.7923 15.1880 
-117.4662 -19.8438 15.2888 
-117.4774 -19.8787 15.4360 
-117.4680 -19.7950 15.2951 
-117.4624 -19.7949 15.3382 
-117.4118 -19.7962 15.3763 
-117.4227 -19.7954 15.4183 
-117.2423 -20.0207 15.1646 
-117.1687 -20.0250 15.1470 
-117.1773 -20.0253 15.1722 
-117.1811 -19.9099 15.1331 
-117.1646 -19.9040 15.2599 
-117.1652 -19.9022 15.3772 
-117.4656 -19.8714 15.4897 
-117.3881 -19.8330 15.5831 
-117.3831 -19.7921 15.4475 
-117.3349 -19.7970 15.5758 
-117.1345 -20.0507 15.3020 
-117.1548 -20.0680 15.3427 
-116.9936 -20.2568 15.1190 
-116.9286 -20.1932 15.1394 
-116.9059 -20.1864 15.1270 
-117.1599 -20.0265 15.1936 
-117.1591 -20.0157 15.2167 
-117.1419 -20.0122 15.2394 
-117.1585 -19.9120 15.1531 
-117.1478 -19.9167 15.2002 
-117.1281 -20.0414 15.2988 
-117.1210 -20.0337 15.3523 
-117.0941 -20.0242 15.3042 
-117.0975 -19.9982 15.3469 
-117.1469 -19.8949 15.3010 
-117.1376 -19.8916 15.3295 
-117.1187 -19.9089 15.3734 
-117.0669 -20.0142 15.3058 
-117.0510 -20.0055 15.3044 
-117.0629 -19.9952 15.3503 
-117.0407 -19.9952 15.3464 
-117.0293 -19.9688 15.2961 
-117.1359 -19.8785 15.3327 
-117.1162 -19.8726 15.3509 
-116.9536 -19.9594 15.2625 
-116.9213 -19.9096 15.2737 
-116.8527 -19.9346 15.1920 
-116.9089 -19.9611 15.2430 
-116.9781 -19.9311 15.3042 
-116.9344 -19.9173 15.2900 
-116.8558 -19.8828 15.1355 
-116.8635 -19.8812 15.2277 
-116.6952 -20.5901 14.4917 
-116.7830 -20.5591 14.7939 
-116.7346 -20.5504 14.7005 
-116.7159 -20.5564 14.7214 
-116.7175 -20.5570 14.7692 
-116.7281 -20.5175 14.6286 
-116.6202 -20.6164 14.5031 
-116.6175 -20.6177 14.5244 
-116.6144 -20.6098 14.6292 
-116.6106 -20.6079 14.5032 
-116.6202 -20.6040 14.6164 
-116.6062 -20.6128 14.6555 
-116.6076 -20.6005 14.6624 
-116.5886 -20.5882 14.6886 
-116.5443 -20.5490 14.7069 
-116.8365 -20.5915 14.8621 
-116.7785 -20.5450 14.9304 
-116.6936 -20.5360 14.8311 
-116.6983 -20.5338 14.8411 
-116.8362 -20.4302 14.9175 
-116.8370 -20.3911 14.9463 
-116.6908 -20.5214 14.8569 
-116.7459 -20.5137 14.9470 
-116.7262 -20.4734 14.8989 
-116.6943 -20.4943 14.8989 
-116.7176 -20.4907 14.9540 
-116.7107 -20.4701 14.9023 
-116.7019 -20.4545 14.9396 
-116.6984 -20.4429 14.9047 
-116.8188 -20.3795 14.9793 
-116.7307 -20.5055 14.9578 
-116.6777 -20.4884 14.8718 
-116.6649 -20.4734 14.8869 
-116.6502 -20.4237 14.9024 
-116.6102 -20.3923 14.8879 
-116.3743 -20.6171 14.4786 
-116.3719 -20.6033 14.4774 
-116.5161 -20.5381 14.6989 
-116.5040 -20.4499 14.5770 
-116.4951 -20.4109 14.5807 
-116.4889 -20.4140 14.6022 
-116.4935 -20.3976 14.6004 
-116.4797 -20.4158 14.5876 
-116.4717 -20.3924 14.6033 
-116.3779 -20.4128 14.6280 
-116.3658 -20.4002 14.6248 
-116.4977 -20.5129 14.6955 
-116.4674 -20.4920 14.6873 
-116.4449 -20.4651 14.6707 
-116.4548 -20.4781 14.6809 
-116.4283 -20.4607 14.6686 
-116.4093 -20.4441 14.6546 
-116.3897 -20.4290 14.6483 
-116.3763 -20.3975 14.6457 
-116.3521 -20.5813 14.4802 
-116.3392 -20.5589 14.4816 
-116.3148 -20.5411 14.4877 
-116.2965 -20.5091 14.4901 
-116.3448 -20.3845 14.6211 
-116.3133 -20.3735 14.6090 
-116.2791 -20.4907 14.4928 
-116.2730 -20.4756 14.4928 
-116.8370 -20.2938 14.8023 
-116.8082 -20.2830 14.8238 
-116.7506 -20.2497 14.8282 
-116.7361 -20.2323 14.8317 
-116.7122 -20.2193 14.8275 
-116.7332 -20.3072 15.0291 
-116.7154 -20.2982 15.0291 
-116.6941 -20.2058 14.8406 
-116.7940 -20.1295 15.0834 
-116.8173 -20.0537 14.9640 
-116.7719 -20.1226 15.0592 
-116.7297 -20.1123 15.0157 
-116.7049 -20.0984 15.0179 
-116.6893 -20.0762 15.0095 
-116.7485 -20.1209 15.0437 
-116.6783 -20.2124 14.8373 
-116.5318 -20.3309 14.8434 
-116.5228 -20.3197 14.8363 
-116.5272 -20.3260 14.8422 
-116.5645 -20.2107 14.9114 
-116.5805 -20.2229 14.9444 
-116.5544 -20.2110 14.9102 
-116.5601 -20.2123 14.9279 
-116.6517 -20.2552 14.9950 
-116.6328 -20.2567 14.9934 
-116.6194 -20.2454 14.9784 
-116.6002 -20.2404 14.9720 
-116.6620 -20.1904 14.8302 
-116.6676 -20.1960 14.8427 
-116.6349 -20.1730 14.8441 
-116.6019 -20.1560 14.8346 
-116.6084 -20.0542 14.9476 
-116.5320 -20.1297 14.8249 
-116.5414 -20.2032 14.8971 
-116.6003 -20.0505 14.9449 
-116.6564 -20.0782 14.9837 
-116.6751 -20.0856 15.0023 
-116.6188 -20.0580 14.9662 
-116.5362 -19.8902 14.7724 
-116.8283 -19.9023 14.8555 
-116.8167 -19.9020 14.8979 
-116.8106 -19.8899 14.9270 
-116.7844 -19.9352 14.8988 
-116.7647 -19.9409 14.9553 
-116.7800 -19.9130 14.9045 
-116.7751 -19.9067 14.9269 
-116.7266 -19.8978 14.9296 
-116.8046 -20.0191 14.9586 
-116.7920 -20.0375 14.9765 
-116.7630 -19.9697 15.0346 
-116.7732 -19.9585 15.0153 
-116.7915 -19.8963 15.1084 
-116.7473 -20.0215 14.9640 
-116.7715 -19.8301 14.8690 
-116.8253 -19.8636 14.9008 
-116.8246 -19.8709 14.9238 
-116.8129 -19.8469 14.8921 
-116.7985 -19.8526 14.9136 
-116.7814 -19.8642 14.9296 
-116.7722 -19.8413 14.8968 
-116.7429 -19.8234 14.8649 
-116.7379 -19.8224 14.8923 
-116.8292 -19.8666 15.0574 
-116.7526 -19.8799 15.0788 
-116.6926 -19.8105 15.0993 
-116.5756 -20.0397 14.9410 
-116.5358 -20.0206 14.9105 
-116.5605 -20.0293 14.9376 
-116.5672 -19.8971 14.8444 
-116.5237 -19.9146 14.8263 
-116.5817 -19.9450 14.9417 
-116.5719 -19.8911 14.9437 
-116.5211 -19.9471 14.9087 
-116.5377 -19.9341 14.9194 
-116.5279 -19.9154 14.9084 
-116.5283 -19.9155 14.9245 
-116.6050 -20.0488 14.9579 
-116.6280 -19.9780 14.9948 
-116.6470 -19.9647 14.9742 
-116.6494 -19.7961 14.8360 
-116.6157 -19.7935 14.8165 
-116.5746 -19.8681 14.9315 
-116.6423 -19.8338 15.0319 
-116.6579 -19.8097 15.0811 
-116.6312 -19.8336 15.0480 
-116.6132 -19.8013 15.0580 
-116.5801 -19.8735 14.9920 
-116.5620 -19.8231 15.0077 
-116.5338 -19.8511 15.0012 
-116.5372 -19.8269 15.0093 
-116.5602 -19.7892 15.0175 
-116.5862 -19.8044 15.0520 
-116.4375 -20.3663 14.6182 
-116.4607 -20.2716 14.7855 
-116.4324 -20.2555 14.7740 
-116.4102 -20.2358 14.7459 
-116.4230 -20.2390 14.7598 
-116.3735 -20.2184 14.7296 
-116.4416 -20.1462 14.7954 
-116.4478 -20.1283 14.7816 
-116.3676 -20.2001 14.7115 
-116.3741 -20.1648 14.7163 
-116.3827 -20.1387 14.7360 
-116.4252 -20.0650 14.7879 
-116.3790 -20.0986 14.7441 
-116.3847 -20.0951 14.7708 
-116.3807 -20.0648 14.7858 
-116.3236 -20.3643 14.6175 
-116.3066 -20.3582 14.5952 
-116.3056 -20.3606 14.6059 
-116.2887 -20.2254 14.6108 
-116.2727 -20.2507 14.5636 
-116.2643 -20.2406 14.5758 
-116.2789 -20.2141 14.6240 
-116.3214 -20.2620 14.6458 
-116.2974 -20.2111 14.6476 
-116.2767 -20.2103 14.6605 
-116.3402 -20.1829 14.6836 
-116.3157 -20.1929 14.6452 
-116.3170 -20.1731 14.6846 
-116.3040 -20.1623 14.6837 
-116.3212 -20.1290 14.7245 
-116.3514 -20.1212 14.7356 
-116.3309 -20.0588 14.7709 
-116.2741 -20.1943 14.6543 
-116.2705 -20.1082 14.7115 
-116.5003 -20.3031 14.8156 
-116.4614 -20.2791 14.8008 
-116.4989 -20.1799 14.8563 
-116.4781 -20.1712 14.8421 
-116.4566 -20.1522 14.8130 
-116.4719 -20.1634 14.8367 
-116.5189 -20.1918 14.8829 
-116.4950 -20.1045 14.8301 
-116.4986 -20.1002 14.8428 
-116.4680 -20.0890 14.8417 
-116.3122 -20.0408 14.7778 
-116.2753 -19.8735 14.7793 
-116.4816 -19.9919 14.8010 
-116.4489 -20.0161 14.8494 
-116.4463 -19.9984 14.8647 
-116.4974 -19.9820 14.8964 
-116.5038 -19.9385 14.8138 
-116.4938 -19.9369 14.8556 
-116.5088 -19.9077 14.8051 
-116.5112 -19.9073 14.8427 
-116.4415 -19.9622 14.8239 
-116.4565 -19.9593 14.8661 
-116.5002 -19.9529 14.8988 
-116.4924 -19.9474 14.9270 
-116.4842 -19.9238 14.9289 
-116.4783 -19.9613 14.8957 
-116.4771 -19.9385 14.9347 
-116.4685 -19.9208 14.9320 
-116.4337 -20.0280 14.8121 
-116.4240 -19.9949 14.8640 
-116.3738 -19.9710 14.8445 
-116.4819 -19.9340 14.9608 
-116.4688 -19.9297 14.9679 
-116.5040 -19.8793 14.8487 
-116.4721 -19.8814 14.8477 
-116.4788 -19.8671 14.9053 
-116.3657 -19.8394 14.8711 
-116.3866 -19.8549 14.8837 
-116.3827 -19.8350 14.9411 
-116.5155 -19.8387 14.9966 
-116.4870 -19.8038 14.9857 
-116.3837 -19.8142 14.9746 
-116.4079 -19.7999 14.9771 
-116.3777 -19.8003 14.9782 
-116.3341 -19.8984 14.8116 
-116.3191 -19.8943 14.8068 
-116.3473 -19.8553 14.8694 
-116.3568 -19.8306 14.8628 
-116.2839 -19.8169 14.8217 
-116.3427 -19.8671 14.8909 
-116.3384 -19.8086 14.8417 
-116.2975 -19.7990 14.8170 
-116.8200 -19.9128 15.1794 
-116.7695 -19.9042 15.1375 
-116.7956 -19.9005 15.1732 
-116.8378 -19.9182 15.1985 
-116.7425 -19.8951 15.1299 
-116.7823 -19.8865 15.1331 
-116.7855 -19.8283 15.1647 
-116.7531 -19.8827 15.1262 
-117.5136 -21.0127 16.7807 
-118.1306 -20.3632 17.0193 
-118.2238 -20.1107 17.0209 
-118.2555 -19.9517 16.6601 
-118.2420 -19.9502 16.7137 
-118.2294 -19.9521 16.7367 
-118.2179 -19.8903 17.0049 
-118.1857 -19.9927 17.0046 
-118.0113 -20.4003 16.3958 
-117.6413 -20.8388 16.3425 
-117.5800 -20.8871 16.3502 
-117.9250 -20.4608 16.4019 
-117.9589 -20.4478 16.7144 
-117.8358 -20.5168 16.7000 
-118.0171 -20.5639 16.8806 
-117.9672 -20.4408 16.7918 
-118.1094 -20.3883 16.8899 
-118.1037 -20.3962 17.0173 
-117.8997 -20.6439 16.8935 
-117.8897 -20.6473 16.9234 
-117.8687 -20.6531 16.9271 
-117.8044 -20.5455 16.9584 
-117.9334 -20.4523 16.7362 
-117.9307 -20.4568 16.7767 
-117.9051 -20.4862 16.7839 
-117.9383 -20.4604 16.8129 
-117.9368 -20.4618 16.8594 
-117.8985 -20.4949 16.8206 
-117.8882 -20.4947 16.8486 
-117.9137 -20.4659 16.8181 
-117.9057 -20.4664 16.8528 
-117.8628 -20.4986 16.7173 
-117.8802 -20.4989 16.8733 
-117.9218 -20.4627 16.9188 
-117.9017 -20.4893 16.9517 
-117.9050 -20.4641 16.8945 
-117.9046 -20.4712 16.9226 
-117.8533 -20.5174 16.9049 
-117.8794 -20.5049 16.9362 
-117.8697 -20.4863 16.8956 
-117.8294 -20.5160 16.9416 
-117.4866 -20.9299 16.6921 
-117.4970 -20.8343 16.5232 
-117.6455 -20.9475 16.7775 
-117.7318 -20.7338 16.8046 
-117.7212 -20.7446 16.8365 
-117.7118 -20.7416 16.7398 
-117.7150 -20.7282 16.7384 
-117.7000 -20.7465 16.8629 
-117.6523 -20.7885 16.9542 
-117.6449 -20.7839 16.9780 
-117.6926 -20.7456 16.8896 
-117.6815 -20.7415 16.9213 
-117.6775 -20.7516 16.9057 
-117.6133 -20.8673 16.7647 
-117.5977 -20.8733 16.7682 
-117.5687 -20.8624 16.8455 
-117.4994 -20.9488 16.7866 
-117.4845 -20.9539 16.8058 
-117.5381 -20.9189 16.8564 
-117.5510 -20.8629 16.8596 
-117.5283 -20.9128 16.8792 
-117.5417 -20.8634 16.8834 
-117.4994 -20.8795 16.8955 
-117.5066 -20.8534 16.9351 
-117.5630 -20.8487 16.8083 
-117.6123 -20.7953 16.9702 
-117.6109 -20.7528 16.9500 
-117.6225 -20.7493 16.9793 
-117.5818 -20.7398 17.0363 
-117.7977 -20.5594 16.6903 
-117.7924 -20.5633 16.7547 
-117.7852 -20.5589 16.7810 
-117.6998 -20.6707 16.7996 
-117.7374 -20.6279 16.9364 
-117.7334 -20.5776 16.9679 
-117.7021 -20.6698 16.9299 
-117.6542 -20.6717 16.9481 
-117.6510 -20.6653 16.9697 
-117.6868 -20.5867 16.8926 
-117.6741 -20.5907 16.9118 
-117.6493 -20.5980 16.9354 
-117.7080 -20.5918 16.9833 
-117.6272 -20.6805 16.9758 
-117.6096 -20.6744 17.0120 
-118.0711 -19.9860 16.9816 
-118.5114 -19.7891 17.2383 
-118.4673 -19.7987 17.3293 
-118.1687 -20.3056 17.0877 
-118.1328 -20.3290 17.0633 
-118.1316 -20.3337 17.0966 
-118.1604 -20.3112 17.0495 
-118.1577 -20.3135 17.1081 
-118.1233 -20.3294 17.1501 
-118.1426 -20.3185 17.1376 
-118.1357 -20.2332 17.0984 
-118.1309 -20.2619 17.1686 
-118.1330 -20.2402 17.1414 
-118.1252 -20.2388 17.1657 
-118.1338 -20.2548 17.2007 
-118.1332 -20.2439 17.2274 
-118.1676 -20.1446 17.1290 
-118.1861 -20.1056 17.2468 
-118.2260 -20.0265 17.0442 
-118.2113 -20.0129 17.1048 
-118.1996 -20.0220 17.1152 
-118.1556 -20.0254 17.0821 
-118.1598 -20.0035 17.0890 
-118.1432 -20.0248 17.1415 
-118.1218 -20.0372 17.1634 
-118.1492 -20.0086 17.1316 
-118.1895 -19.8133 17.1062 
-118.1437 -19.8526 17.2156 
-118.1420 -19.8575 17.2736 
-118.1533 -19.8397 17.2329 
-118.1379 -19.8600 17.2962 
-118.3262 -19.8266 17.4699 
-118.3125 -19.8364 17.4521 
-118.3065 -19.8342 17.4891 
-118.3419 -19.7950 17.4595 
-118.3174 -19.8035 17.4781 
-118.1916 -19.8019 17.4695 
-118.1222 -19.8550 17.5419 
-118.0852 -20.3921 17.0582 
-118.0563 -20.3761 17.1253 
-118.0382 -20.4031 17.1328 
-118.0174 -20.4000 17.1673 
-117.9894 -20.3771 17.2229 
-117.9725 -20.3881 17.2478 
-117.8837 -20.6141 17.1084 
-117.9409 -20.5711 17.0952 
-117.8543 -20.5928 17.1371 
-117.8503 -20.4757 17.0392 
-117.8079 -20.4756 17.0990 
-117.8054 -20.4604 17.1340 
-117.9457 -20.4095 17.2348 
-117.9434 -20.3963 17.2623 
-117.9467 -20.4240 17.2911 
-117.9380 -20.3767 17.2959 
-117.8967 -20.4126 17.3095 
-117.8861 -20.4136 17.3276 
-117.9069 -20.3952 17.3081 
-117.8996 -20.3885 17.3333 
-117.8513 -20.4345 17.2926 
-117.8745 -20.4145 17.3477 
-117.8684 -20.3838 17.3437 
-117.9806 -20.3690 17.3723 
-117.8873 -20.4178 17.3772 
-117.8577 -20.4226 17.3646 
-117.8548 -20.4287 17.4243 
-117.8659 -20.3976 17.3705 
-117.8407 -20.4115 17.3954 
-117.8352 -20.4096 17.4101 
-117.8299 -20.3939 17.3863 
-117.8283 -20.3933 17.4040 
-117.8190 -20.3839 17.4596 
-117.8053 -20.3798 17.4840 
-117.9292 -20.4085 17.5550 
-117.8262 -20.3694 17.5915 
-117.5615 -20.7380 17.0507 
-117.5654 -20.7056 17.1283 
-117.5364 -20.7716 17.1292 
-117.5033 -20.7803 17.1431 
-117.4960 -20.7757 17.1671 
-117.5580 -20.7414 17.0688 
-117.5277 -20.7475 17.0935 
-117.5442 -20.7230 17.0958 
-117.5290 -20.7669 17.1521 
-117.5319 -20.7154 17.1308 
-117.5239 -20.7102 17.1675 
-117.4811 -20.7226 17.1813 
-117.7875 -20.4857 17.0995 
-117.7749 -20.5202 17.1338 
-117.7841 -20.4684 17.1477 
-117.7701 -20.4740 17.1639 
-117.7476 -20.4919 17.1481 
-117.7427 -20.4902 17.1623 
-117.7368 -20.4569 17.2345 
-117.7269 -20.4536 17.2454 
-117.6820 -20.5187 17.2594 
-117.7178 -20.4520 17.2629 
-117.6938 -20.4617 17.2861 
-117.6614 -20.5247 17.2975 
-117.6643 -20.4628 17.3007 
-117.6719 -20.4550 17.3364 
-117.7196 -20.4455 17.2533 
-117.6296 -20.5828 17.0641 
-117.5847 -20.5798 17.1772 
-117.5028 -20.6795 17.1629 
-117.6263 -20.5503 17.2861 
-117.5311 -20.5974 17.2174 
-117.7931 -20.4031 17.4695 
-117.7901 -20.3838 17.4961 
-117.7744 -20.3752 17.5212 
-117.6767 -20.4095 17.6246 
-117.6592 -20.3987 17.6640 
-117.4896 -20.6522 17.3919 
-117.4966 -20.6250 17.4375 
-117.5452 -20.5423 17.4160 
-117.4943 -20.5585 17.4179 
-117.5463 -20.5355 17.4403 
-117.6201 -20.4612 17.4080 
-117.5908 -20.4766 17.4070 
-117.6074 -20.4549 17.4369 
-117.5733 -20.4545 17.4566 
-117.5646 -20.4561 17.4929 
-117.6162 -20.4466 17.4257 
-117.6058 -20.4430 17.4454 
-117.5893 -20.4411 17.4662 
-117.5687 -20.4416 17.4995 
-117.5532 -20.4616 17.5048 
-117.5522 -20.4472 17.5145 
-117.4984 -20.4905 17.5475 
-117.4905 -20.4932 17.5678 
-117.5049 -20.4681 17.5532 
-117.5427 -20.4439 17.5258 
-117.6684 -20.4174 17.7064 
-117.6427 -20.4235 17.7364 
-117.6535 -20.4015 17.7229 
-117.7067 -20.3926 17.7707 
-117.6084 -20.4276 17.7557 
-117.6195 -20.3882 17.7064 
-117.6191 -20.3868 17.7313 
-117.5763 -20.4109 17.7299 
-117.5962 -20.3847 17.7421 
-117.6134 -20.4092 17.7656 
-117.5867 -20.3743 17.7570 
-117.5426 -20.4069 17.8693 
-118.1192 -20.3423 17.1106 
-118.0856 -20.3589 17.1402 
-118.1085 -20.3272 17.1214 
-118.1163 -20.3272 17.1635 
-118.1050 -20.2616 17.1377 
-118.1072 -20.3331 17.2635 
-118.1029 -20.2402 17.2799 
-117.9691 -20.3656 17.2334 
-118.0110 -20.3568 17.3411 
-117.9788 -20.2374 17.2682 
-118.1019 -20.1665 17.2248 
-118.0816 -20.1550 17.2974 
-118.0671 -20.1511 17.3354 
-118.0668 -20.0537 17.2593 
-118.0505 -20.0578 17.2956 
-118.0311 -20.0639 17.3160 
-118.0150 -20.0688 17.3455 
-117.9288 -20.3669 17.3091 
-117.9165 -20.3634 17.3250 
-118.0130 -20.3426 17.3678 
-118.0268 -20.3240 17.3616 
-117.9887 -20.3581 17.3809 
-117.9775 -20.3477 17.4129 
-117.9768 -20.3022 17.3829 
-117.9875 -20.3222 17.4162 
-117.9688 -20.3347 17.4418 
-117.9649 -20.3261 17.4495 
-118.0138 -20.2106 17.4196 
-117.9828 -20.2218 17.4314 
-117.9706 -20.2143 17.4796 
-118.0034 -20.2876 17.5246 
-118.0096 -20.1700 17.3799 
-118.0251 -20.1942 17.4209 
-118.0370 -20.1678 17.3578 
-118.0054 -20.2058 17.4424 
-117.9646 -20.1612 17.4785 
-117.9888 -20.0759 17.3819 
-117.9567 -20.3578 17.4269 
-117.8881 -20.3647 17.3650 
-117.9450 -20.3471 17.4567 
-117.9299 -20.3384 17.4866 
-117.9513 -20.3217 17.4676 
-117.9285 -20.3143 17.4778 
-117.9086 -20.3488 17.5029 
-117.8961 -20.2492 17.3949 
-117.9129 -20.2660 17.4631 
-117.8939 -20.2698 17.4871 
-117.8817 -20.2150 17.4627 
-117.8204 -20.3677 17.4651 
-117.8080 -20.3636 17.4839 
-117.8937 -20.3475 17.5230 
-117.8855 -20.2412 17.5618 
-117.8666 -20.3609 17.5404 
-117.8505 -20.3551 17.5746 
-117.8451 -20.3389 17.6007 
-117.8456 -20.3188 17.6044 
-117.8235 -20.3487 17.6102 
-117.8289 -20.3158 17.6166 
-117.8659 -20.2653 17.5421 
-117.8481 -20.2697 17.5679 
-117.8679 -20.2357 17.5179 
-117.8660 -20.2312 17.5759 
-117.8388 -20.2685 17.5825 
-117.8331 -20.2187 17.5376 
-117.8530 -20.2297 17.6134 
-117.8201 -20.2701 17.6055 
-117.8039 -20.2517 17.6588 
-117.8331 -20.2393 17.6285 
-117.8171 -20.2350 17.6600 
-117.9481 -20.1729 17.4743 
-117.9573 -20.2066 17.5010 
-117.9482 -20.1616 17.4868 
-117.9077 -20.2043 17.4839 
-117.9418 -20.0609 17.4744 
-117.9329 -20.0582 17.4960 
-117.9205 -20.0614 17.5127 
-117.9085 -20.0648 17.5209 
-117.8894 -20.0627 17.5701 
-117.8314 -20.2040 17.5815 
-117.8204 -20.1924 17.6652 
-117.8782 -20.0670 17.5767 
-117.8564 -20.0965 17.6578 
-117.8788 -20.0535 17.6170 
-117.8755 -20.0779 17.6727 
-117.8365 -20.0774 17.6715 
-117.9828 -19.9818 17.1400 
-118.1009 -20.0339 17.2164 
-118.0902 -20.0275 17.2501 
-118.0821 -20.0145 17.2895 
-118.0720 -20.0289 17.3045 
-118.0476 -20.0326 17.3375 
-118.1192 -19.8844 17.2946 
-118.1094 -19.8167 17.3492 
-118.0975 -19.8985 17.4100 
-118.0996 -19.9142 17.4725 
-118.0840 -19.9091 17.5082 
-118.0736 -19.9155 17.4610 
-118.0276 -20.0468 17.3669 
-118.0845 -19.9049 17.5399 
-118.0761 -19.9060 17.5689 
-118.0643 -19.8948 17.6355 
-118.0451 -19.9172 17.6383 
-118.0375 -19.8937 17.6579 
-118.1051 -19.8777 17.4641 
-118.1007 -19.8773 17.4905 
-118.1114 -19.8642 17.5555 
-118.0979 -19.8740 17.5747 
-118.0737 -19.8825 17.6198 
-118.0597 -19.8742 17.6449 
-117.9305 -20.0461 17.4961 
-117.9457 -20.0222 17.5373 
-117.9306 -20.0245 17.5700 
-117.9015 -20.0485 17.5557 
-117.9088 -20.0395 17.5840 
-117.9077 -20.0270 17.6024 
-117.8718 -20.0224 17.6465 
-117.7775 -20.3210 17.1375 
-117.6985 -20.3069 17.2790 
-117.6425 -20.2959 17.3354 
-117.6239 -20.3400 17.3460 
-117.7934 -20.3625 17.5055 
-117.7747 -20.3610 17.5329 
-117.8008 -20.3465 17.6308 
-117.7891 -20.2577 17.6669 
-117.5722 -20.2833 17.4006 
-117.8069 -20.2327 17.6786 
-117.8163 -20.2048 17.6771 
-117.8201 -20.1577 17.7158 
-117.8504 -20.0927 17.6949 
-117.8609 -20.0694 17.6937 
-117.8531 -20.0645 17.7165 
-117.8275 -20.1025 17.6888 
-117.8253 -20.0657 17.7023 
-118.0267 -19.9437 17.6818 
-118.0023 -19.9207 17.7178 
-117.9901 -19.9358 17.7363 
-117.9983 -19.9104 17.6986 
-117.9824 -19.9090 17.7393 
-117.9702 -19.9416 17.7821 
-117.9641 -19.9123 17.7628 
-117.9670 -19.9139 17.8104 
-118.1016 -19.9114 17.9390 
-118.0750 -19.9148 17.9754 
-118.0111 -19.9105 17.9720 
-118.0537 -19.8599 17.6965 
-118.0762 -19.8444 17.6787 
-118.0336 -19.8750 17.7094 
-118.0032 -19.8383 17.6886 
-117.9781 -19.8886 17.7527 
-117.9736 -19.8816 17.7735 
-118.0419 -19.8589 17.9636 
-118.0340 -19.8642 17.9761 
-117.9876 -19.8717 17.9842 
-117.8929 -20.0063 17.6874 
-117.9594 -19.9337 17.8064 
-117.9504 -19.9110 17.7769 
-117.9288 -19.9256 17.8129 
-117.9077 -19.9391 17.8266 
-117.9149 -19.9204 17.8192 
-117.8527 -20.0382 17.6909 
-117.8239 -20.0260 17.7532 
-117.8085 -20.0322 17.7687 
-117.9211 -19.9802 17.9016 
-117.9498 -19.9514 17.9055 
-117.9087 -19.9186 17.8429 
-117.8109 -19.9702 17.9937 
-117.8705 -19.9620 17.8951 
-117.8585 -19.9191 17.9482 
-117.8369 -19.9582 17.9466 
-117.8275 -19.9427 17.9594 
-117.8222 -19.8977 17.9858 
-117.9404 -19.8773 17.8954 
-117.8533 -19.8825 17.9774 
-117.9811 -19.9309 18.0556 
-117.9699 -19.9237 18.0723 
-117.9931 -19.9180 18.0949 
-118.0013 -19.8217 18.0432 
-117.8015 -19.9734 18.0139 
-117.8798 -19.9397 18.0118 
-117.8098 -19.9565 17.9991 
-117.8237 -19.8985 18.0187 
-117.8945 -19.8588 18.1556 
-117.9428 -19.8046 18.1130 
-117.9353 -19.8025 18.1259 
-117.8458 -19.8796 18.0071 
-117.8820 -19.8706 18.1597 
-117.8696 -19.8857 18.1684 
-117.8793 -19.8291 18.1742 
-117.8353 -19.8471 18.1904 
-117.8262 -19.8321 18.2186 
-117.7473 -20.3490 17.7505 
-117.7246 -20.3504 17.7733 
-117.7775 -20.2539 17.6954 
-117.7679 -20.2507 17.7258 
-117.7868 -20.2364 17.6996 
-117.7675 -20.2236 17.7366 
-117.7521 -20.2712 17.7146 
-117.7517 -20.2566 17.7169 
-117.7469 -20.2313 17.7394 
-117.7398 -20.2173 17.7750 
-117.7242 -20.2117 17.8070 
-117.6854 -20.3593 17.7722 
-117.6756 -20.3560 17.7931 
-117.6547 -20.3565 17.8066 
-117.6467 -20.3154 17.8312 
-117.7108 -20.2168 17.8127 
-117.7008 -20.2287 17.9070 
-117.6533 -20.2781 17.8441 
-117.6678 -20.2363 17.8484 
-117.6568 -20.2238 17.9728 
-117.7762 -20.1932 17.7453 
-117.7856 -20.1580 17.7331 
-117.7519 -20.1866 17.7360 
-117.7674 -20.1873 17.7667 
-117.7476 -20.1947 17.7846 
-117.7360 -20.1833 17.8144 
-117.7475 -20.1491 17.7692 
-117.7456 -20.1549 17.8172 
-117.7784 -20.0662 17.7742 
-117.7630 -20.0638 17.8031 
-117.7355 -20.0900 17.8121 
-117.7557 -20.0705 17.7876 
-117.7424 -20.0735 17.8174 
-117.7179 -20.1909 17.8266 
-117.7269 -20.1527 17.8425 
-117.7265 -20.0917 17.8417 
-117.7467 -20.1238 17.9105 
-117.7321 -20.0618 17.8507 
-117.7577 -20.0805 17.8844 
-117.7051 -20.1842 17.8464 
-117.7055 -20.1526 17.8594 
-117.6617 -20.2027 17.9712 
-117.7015 -20.0950 17.8663 
-117.6949 -20.0929 17.8990 
-117.7145 -20.0792 17.8627 
-117.7041 -20.0680 17.8932 
-117.6747 -20.0767 17.9099 
-117.6889 -20.0602 17.9264 
-117.7083 -20.0851 17.9734 
-117.6731 -20.0704 17.9361 
-117.6500 -20.0676 17.9681 
-117.6351 -20.3596 17.7059 
-117.6138 -20.3566 17.7370 
-117.6262 -20.3508 17.7611 
-117.6337 -20.3280 17.8351 
-117.5862 -20.3558 17.7644 
-117.6117 -20.3344 17.8573 
-117.6257 -20.3100 17.8590 
-117.5920 -20.3017 17.8915 
-117.6043 -20.2978 17.9808 
-117.5668 -20.3038 17.9574 
-117.6336 -20.2713 17.8614 
-117.6104 -20.2835 17.9157 
-117.5757 -20.2864 17.9041 
-117.6064 -20.2713 17.9267 
-117.6191 -20.2664 17.9759 
-117.6219 -20.2468 17.9405 
-117.6238 -20.2387 17.9798 
-117.5918 -20.2643 17.9407 
-117.5878 -20.2315 17.9488 
-117.5791 -20.2257 17.9598 
-117.5085 -20.3512 17.8641 
-117.5112 -20.3484 17.9422 
-117.5060 -20.3016 17.9581 
-117.5471 -20.2304 17.9815 
-117.5999 -20.1950 17.9777 
-117.6426 -20.1350 17.9972 
-117.5374 -20.2574 17.9978 
-117.5515 -20.2206 18.0717 
-117.5174 -20.2491 18.0189 
-117.5033 -20.2192 18.0778 
-117.6230 -20.0642 18.0056 
-117.6078 -20.0653 18.0474 
-117.5731 -20.0923 18.0758 
-117.5163 -20.1853 18.0745 
-117.5122 -20.1321 18.0859 
-117.5408 -20.0992 18.1214 
-117.5025 -20.0929 18.1387 
-117.5055 -20.0696 18.1421 
-117.4824 -20.0609 18.1634 
-117.7635 -20.0464 17.7997 
-117.7535 -20.0361 17.8254 
-117.7369 -20.0318 17.8600 
-117.7234 -20.0377 17.8802 
-117.7917 -19.9513 17.9917 
-117.7078 -20.0313 17.9011 
-117.6876 -20.0284 17.9310 
-117.6736 -20.0345 17.9458 
-117.6574 -20.0312 17.9695 
-117.7806 -19.9781 18.0161 
-117.7815 -19.9889 18.0602 
-117.7413 -19.9871 18.0600 
-117.7323 -19.9810 18.0877 
-117.7839 -19.9502 18.0197 
-117.7746 -19.9431 18.0563 
-117.7333 -19.9548 18.0317 
-117.7700 -19.9134 18.1480 
-117.7463 -19.9460 18.0904 
-117.7455 -19.9192 18.1062 
-117.7323 -19.9130 18.1200 
-117.7089 -19.9722 18.1274 
-117.7056 -19.9588 18.1437 
-117.7627 -19.9112 18.1610 
-117.6582 -19.9881 18.1788 
-117.6886 -19.9648 18.1631 
-117.6922 -19.8899 18.2390 
-117.6640 -19.9158 18.2584 
-117.7772 -19.8889 18.1637 
-117.6465 -19.8682 18.2830 
-117.5124 -20.0318 18.1408 
-117.6263 -19.9965 18.2081 
-117.6047 -19.9407 18.2346 
-117.5871 -19.9660 18.2420 
-117.4918 -20.0374 18.1676 
-117.5295 -20.0024 18.3141 
-117.5095 -20.0302 18.3138 
-116.9808 -21.3372 16.2373 
-116.9584 -21.3478 16.2593 
-116.9343 -21.3528 16.3002 
-116.9213 -21.3550 16.3294 
-116.9091 -21.3571 16.3459 
-116.8980 -21.3566 16.3728 
-117.1374 -21.1830 16.3485 
-117.1252 -21.1781 16.3571 
-117.1118 -21.1871 16.3860 
-117.0210 -21.1175 16.1639 
-117.0949 -21.0628 16.3491 
-117.0452 -21.0246 16.3502 
-117.0493 -21.0205 16.3769 
-116.9907 -21.3241 16.2343 
-116.9640 -21.2397 16.2534 
-116.9511 -21.2399 16.2709 
-116.9423 -21.2385 16.2975 
-116.9307 -21.2369 16.3258 
-116.8856 -21.2525 16.3099 
-116.9183 -21.2432 16.3038 
-116.9134 -21.2335 16.3406 
-116.9040 -21.2380 16.3684 
-116.8789 -21.2409 16.3507 
-116.8753 -21.2393 16.3736 
-116.9674 -21.1078 16.2448 
-117.3222 -21.0630 16.6579 
-117.2977 -21.0689 16.6940 
-117.3275 -21.0101 16.7418 
-117.2930 -21.0697 16.7263 
-117.2419 -21.0729 16.7742 
-117.2680 -21.0096 16.8200 
-117.2327 -21.0604 16.7947 
-117.2171 -21.0657 16.8115 
-117.1853 -21.0768 16.8289 
-116.8855 -21.3541 16.4152 
-116.8669 -21.3622 16.4189 
-116.8562 -21.3556 16.4526 
-116.8473 -21.3490 16.4943 
-117.0910 -21.1813 16.4212 
-117.0687 -21.1851 16.4525 
-117.0613 -21.1774 16.4808 
-117.0202 -21.1698 16.4994 
-117.0713 -21.0559 16.4176 
-117.0556 -21.0607 16.4500 
-117.0168 -21.0198 16.4273 
-117.0006 -21.1718 16.5039 
-116.9752 -21.1760 16.5355 
-116.8887 -21.2304 16.4033 
-116.8603 -21.2371 16.4123 
-116.8581 -21.2318 16.4478 
-116.9866 -21.1751 16.5784 
-116.9495 -21.1742 16.5937 
-116.9529 -21.1730 16.6091 
-116.8860 -21.1754 16.6306 
-116.9747 -21.1561 16.5111 
-116.9874 -21.0211 16.4640 
-116.9882 -21.0308 16.5019 
-116.9762 -21.0285 16.5295 
-116.9586 -21.0266 16.5063 
-116.9464 -21.0398 16.5361 
-116.9661 -21.1638 16.6325 
-116.9498 -21.1641 16.5875 
-116.9437 -21.1612 16.6492 
-116.9445 -21.0295 16.5738 
-116.9251 -21.0240 16.6643 
-116.8898 -21.1660 16.6735 
-116.8588 -21.1498 16.6950 
-116.9039 -21.0272 16.6601 
-116.9198 -21.0218 16.6780 
-116.8617 -21.0350 16.6633 
-116.8785 -21.0257 16.6990 
-117.1121 -21.0585 16.9479 
-117.0949 -21.0401 17.0263 
-116.8629 -21.1696 16.7797 
-116.8570 -21.1472 16.7441 
-116.8487 -21.1521 16.7680 
-116.8999 -21.0512 16.7208 
-116.8495 -21.0436 16.7552 
-116.8564 -21.0131 16.7667 
-116.8482 -21.0116 16.8087 
-116.7500 -21.4639 16.0479 
-116.6122 -21.5300 16.0303 
-116.6076 -21.4911 16.0473 
-116.5923 -21.4965 16.0733 
-116.6851 -21.6025 16.2433 
-116.7220 -21.4720 16.0874 
-116.7109 -21.4727 16.1045 
-116.6980 -21.4753 16.1400 
-116.6878 -21.4793 16.1728 
-116.7362 -21.3893 16.0982 
-116.7181 -21.3956 16.1453 
-116.6990 -21.3968 16.1702 
-116.6927 -21.3956 16.2007 
-116.6779 -21.6108 16.2420 
-116.6209 -21.5082 16.2684 
-116.6355 -21.4914 16.3008 
-116.6024 -21.5512 16.3715 
-116.6397 -21.4909 16.3205 
-116.5999 -21.6294 16.3939 
-116.5942 -21.5475 16.3827 
-116.6653 -21.4837 16.1846 
-116.6749 -21.4023 16.1878 
-116.6701 -21.3975 16.2185 
-116.6661 -21.3593 16.1836 
-116.6496 -21.4764 16.2498 
-116.6247 -21.4809 16.2602 
-116.6043 -21.4787 16.2797 
-116.6134 -21.4643 16.3181 
-116.6579 -21.3892 16.2533 
-116.6383 -21.3980 16.2544 
-116.6105 -21.3663 16.2772 
-116.5941 -21.4742 16.2978 
-116.5673 -21.4767 16.3376 
-116.5349 -21.4736 16.3881 
-116.5440 -21.4384 16.3674 
